# .PCD v0.7 - Point Cloud Data file format
VERSION 0.7
FIELDS x y z rgb
SIZE 4 4 4 4
TYPE F F F U
COUNT 1 1 1 1
WIDTH 1165
HEIGHT 1
VIEWPOINT 0 0 0 1 0 0 0
POINTS 1165
DATA ascii
0.88573027 -1.7555012 0.77470094 5654052
0.89403105 -1.753958 0.77470094 5654054
0.90360212 -1.7547294 0.77470094 5719847
0.91217804 -1.7547295 0.77470094 5719847
-0.91122103 -1.743216 0.7746982 5523243
-0.90439671 -1.743216 0.7746982 5523244
-0.54612142 -1.7432151 0.77469867 5850916
-0.53588504 -1.743215 0.77469867 5851173
-0.52564859 -1.743215 0.77469867 5851174
-0.51541215 -1.743215 0.77469867 5785381
-0.50517577 -1.743215 0.77469867 5719844
-0.49493933 -1.743215 0.77469873 5785638
-0.48470286 -1.743215 0.77469873 5851432
-0.47446644 -1.743215 0.77469873 5785380
-0.46423006 -1.743215 0.77469873 5785378
-0.45399356 -1.7432147 0.77469873 5851174
-0.44375718 -1.7432147 0.77469879 5785638
-0.4335207 -1.7432147 0.77469873 5654052
-0.42499039 -1.7432148 0.77469873 5719845
-0.41646004 -1.7432147 0.77469879 5851174
-0.40622362 -1.7432147 0.77469879 5851431
-0.39598718 -1.7432147 0.77469879 5719587
-0.38575077 -1.7432146 0.77469891 5588002
-0.37551436 -1.7432146 0.77469891 5588516
-0.36527792 -1.7432146 0.77469891 5654053
-0.3550415 -1.7432146 0.77469891 5719845
-0.34480509 -1.7432146 0.77469891 5719846
-0.33456862 -1.7432146 0.77469891 5654054
-0.32433221 -1.7432146 0.77469891 5654054
-0.31750792 -1.7432146 0.77469891 5719848
-0.10595521 -1.7432141 0.77469915 5720104
-0.095718794 -1.743214 0.77469915 5720104
-0.085482381 -1.743214 0.77469921 5719848
0.11583378 -1.7432133 0.77469951 5720105
0.12607019 -1.7432132 0.77469951 5720104
0.1363066 -1.7432132 0.77469963 5719846
0.146543 -1.7432132 0.77469963 5719848
0.15507334 -1.7432131 0.77469969 5720362
0.16360368 -1.7432131 0.77469969 5785642
0.17384011 -1.7432131 0.77469969 5720105
0.1840765 -1.7432131 0.77469969 5720362
0.19431289 -1.7432131 0.77469975 5720362
0.20113719 -1.7432129 0.77469975 5720362
0.24890706 -1.7432128 0.77469981 5654829
0.25573134 -1.7432128 0.77469987 5654828
0.26596773 -1.7432127 0.77469987 5654830
0.27620414 -1.7432127 0.77469987 5655087
0.28644055 -1.7432127 0.77469993 5589294
0.29497087 -1.7432127 0.77469993 5523244
0.30350122 -1.7432127 0.77469993 5523243
0.31373763 -1.7432126 0.77469993 5523243
0.32397401 -1.7432126 0.77469993 5589038
0.33421043 -1.7432126 0.77469993 5589297
0.34444681 -1.7432126 0.77469999 5655346
0.35468325 -1.7432123 0.77469999 5655347
0.36491963 -1.7432123 0.77469999 5655090
0.37515602 -1.7432123 0.77469999 5655090
0.3819803 -1.7432123 0.77469999 5655088
0.64642048 -1.7432114 0.77470052 5851174
0.6549508 -1.7432114 0.77470046 5785380
0.66518718 -1.7432114 0.77470046 5785123
0.67542356 -1.7432113 0.77470058 5851172
0.68565995 -1.7432113 0.77470058 5851173
0.69589633 -1.7432113 0.77470058 5785638
0.70613271 -1.7432113 0.77470064 5719844
0.71636909 -1.7432113 0.77470064 5719844
0.72489941 -1.7432113 0.77470064 5785638
0.73342973 -1.7432113 0.77470064 5851432
0.74366611 -1.7432112 0.77470064 5785637
0.75390249 -1.7432112 0.77470064 5785378
0.76413888 -1.7432112 0.7747007 5851173
0.77437526 -1.7432112 0.7747007 5785638
0.78461164 -1.7432112 0.7747007 5654052
0.79484802 -1.7432109 0.77470082 5719845
0.80508441 -1.7432109 0.77470082 5851430
0.81532079 -1.7432109 0.77470082 5851174
0.82555717 -1.7432108 0.77470082 5653794
0.83579355 -1.7432108 0.77470082 5588258
0.84602994 -1.7432108 0.77470082 5654052
0.85626632 -1.7432108 0.77470088 5654053
0.8665027 -1.7432107 0.77470088 5719845
0.87503302 -1.7432107 0.77470088 5719846
0.88356334 -1.7432107 0.77470088 5654054
0.89379972 -1.7432107 0.77470094 5654054
0.9040361 -1.7432104 0.77470094 5719848
0.91256642 -1.7432106 0.774701 5654310
-0.91132694 -1.7356089 0.7746982 5589037
-0.90452671 -1.7356089 0.7746982 5589037
-0.89772654 -1.7356088 0.7746982 5589294
-0.54411602 -1.7356081 0.77469856 5851431
-0.53391576 -1.7356081 0.77469856 5851175
-0.52371544 -1.735608 0.77469856 5719844
-0.51351517 -1.735608 0.77469856 5719845
-0.5050149 -1.735608 0.77469862 5785639
-0.49651465 -1.735608 0.77469873 5851431
-0.48631439 -1.735608 0.77469873 5785638
-0.47611412 -1.735608 0.77469873 5719588
-0.46591377 -1.735608 0.77469873 5719843
-0.45571351 -1.735608 0.77469873 5785639
-0.44551322 -1.7356077 0.77469873 5719846
-0.4353129 -1.7356077 0.77469873 5654310
-0.42511261 -1.7356077 0.77469873 5785382
-0.41491234 -1.7356077 0.77469873 5851431
-0.40471205 -1.7356077 0.77469879 5851174
-0.3945117 -1.7356077 0.77469873 5653795
-0.38431144 -1.7356077 0.77469873 5588259
-0.37411118 -1.7356077 0.77469879 5654053
-0.36391082 -1.7356077 0.77469879 5719846
-0.35371056 -1.7356077 0.77469879 5719846
-0.34351027 -1.7356076 0.77469891 5654053
-0.33501002 -1.7356076 0.77469885 5588517
-0.32650977 -1.7356076 0.77469891 5654054
-0.3197096 -1.7356076 0.77469885 5654312
-0.10550354 -1.7356071 0.77469915 5654310
-0.095303245 -1.735607 0.77469921 5720104
-0.085102975 -1.735607 0.77469921 5719848
0.11550256 -1.7356063 0.77469951 5720105
0.12570283 -1.7356063 0.77469951 5719847
0.13590311 -1.7356063 0.77469951 5720104
0.14610338 -1.7356063 0.77469951 5720105
0.15630366 -1.7356062 0.77469951 5720107
0.16650394 -1.7356062 0.77469951 5719848
0.17500415 -1.7356062 0.77469957 5720106
0.18350439 -1.7356062 0.77469963 5720363
0.19370466 -1.7356061 0.77469963 5720362
0.20050484 -1.7356061 0.77469963 5720620
0.24810611 -1.7356058 0.77469975 5589294
0.2549063 -1.7356058 0.77469975 5589294
0.26510656 -1.7356058 0.77469975 5654830
0.27530682 -1.7356057 0.77469975 5589294
0.28550708 -1.7356057 0.77469987 5523501
0.29570737 -1.7356057 0.77469987 5457708
0.30590761 -1.7356056 0.77469987 5523501
0.31610793 -1.7356056 0.77469987 5589037
0.32630816 -1.7356056 0.77469993 5589297
0.33650842 -1.7356056 0.77469993 5655091
0.34500867 -1.7356055 0.77469993 5655347
0.35350886 -1.7356056 0.77469993 5655347
0.36370912 -1.7356056 0.77469993 5655348
0.37390938 -1.7356056 0.77469999 5655348
0.38070959 -1.7356055 0.77469999 5655090
0.50766069 -1.7345047 0.77714825 6050884
0.51361382 -1.7308233 0.77709818 6447714
0.54561383 -1.7356048 0.77470028 5719587
0.62551588 -1.7356046 0.7747004 5719588
0.63571608 -1.7356046 0.7747004 5785639
0.64591634 -1.7356046 0.77470046 5785639
0.6561166 -1.7356046 0.77470046 5654053
0.66631687 -1.7356044 0.77470046 5785382
0.67651719 -1.7356044 0.77470046 5851432
0.68501735 -1.7356044 0.77470052 5851175
0.69351751 -1.7356044 0.77470046 5719845
0.70371777 -1.7356043 0.77470058 5719844
0.71391803 -1.7356043 0.77470058 5785639
0.72411829 -1.7356043 0.77470064 5851431
0.73431855 -1.7356042 0.77470064 5785637
0.74451882 -1.7356039 0.77470064 5719587
0.75471908 -1.7356039 0.77470064 5719844
0.76491928 -1.7356039 0.77470064 5720103
0.77511954 -1.7356039 0.7747007 5719846
0.78531981 -1.7356038 0.7747007 5654310
0.79552001 -1.7356038 0.7747007 5785638
0.80572027 -1.7356038 0.77470082 5851432
0.81592053 -1.7356038 0.77470082 5785638
0.82612067 -1.7356037 0.77470082 5588258
0.83632106 -1.7356037 0.77470082 5588260
0.8465212 -1.7356037 0.77470082 5654053
0.85502148 -1.7356036 0.77470082 5719846
0.86352175 -1.7356037 0.77470082 5719846
0.8737219 -1.7356037 0.77470088 5654054
0.88392216 -1.7356037 0.77470088 5588517
0.89412242 -1.7356037 0.77470088 5654055
0.90432268 -1.7356037 0.77470088 5654312
0.91112286 -1.7356036 0.77470088 5654311
-0.9114843 -1.7243052 0.77469814 5589038
-0.90471989 -1.7243053 0.7746982 5589295
-0.89526731 -1.7235552 0.77469814 5589553
-0.54356617 -1.7236561 0.77540296 5589295
-0.53437161 -1.7243046 0.77469856 5851176
-0.52509212 -1.7250545 0.77469856 5785380
-0.51576662 -1.7243043 0.77469867 5785637
-0.50561994 -1.7243042 0.77469867 5851431
-0.49547338 -1.7243042 0.77469867 5851430
-0.48532677 -1.7243043 0.77469867 5785379
-0.47518018 -1.7243042 0.77469867 5719845
-0.46503362 -1.7243042 0.77469873 5785639
-0.454887 -1.7243042 0.77469873 5654051
-0.44474038 -1.7243042 0.77469873 5653795
-0.43459377 -1.7243042 0.77469873 5719846
-0.42444718 -1.7243041 0.77469873 5785639
-0.41516322 -1.723554 0.77469873 5785638
-0.40584803 -1.7243041 0.77469873 5719845
-0.39570144 -1.7243041 0.77469873 5654051
-0.38555482 -1.7243041 0.77469879 5653795
-0.37540826 -1.7243038 0.77469879 5654052
-0.36526167 -1.7243038 0.77469879 5654311
-0.35511503 -1.7243038 0.77469879 5720105
-0.34496844 -1.7243038 0.77469879 5720104
-0.33482182 -1.7243038 0.77469879 5654053
-0.32467523 -1.7243037 0.77469891 5654053
-0.31791085 -1.7243038 0.77469885 5654054
-0.10483237 -1.7243032 0.77469915 5654310
-0.094685771 -1.7243032 0.77469915 5719847
-0.084539197 -1.7243032 0.77469915 5719848
0.11501036 -1.7243026 0.77469945 5720106
0.12515694 -1.7243026 0.77469945 5720105
0.13530353 -1.7243026 0.77469951 5720362
0.14545012 -1.7243026 0.77469951 5720364
0.15559669 -1.7243024 0.77469963 5654570
0.16574328 -1.7243024 0.77469963 5654311
0.17588985 -1.7243024 0.77469963 5720105
0.18603642 -1.7243023 0.77469963 5720362
0.19618301 -1.7243023 0.77469969 5720622
0.24790971 -1.723052 0.77469969 5589036
0.25443688 -1.7250521 0.77469981 5589035
0.26382688 -1.7243019 0.77469975 5588779
0.27397346 -1.7243019 0.77469975 5522986
0.28411999 -1.7243018 0.77469975 5522986
0.29426658 -1.7243019 0.77469987 5523244
0.30441317 -1.7243018 0.77469987 5523502
0.31455973 -1.7243019 0.77469987 5589295
0.32470632 -1.7243019 0.77469987 5589553
0.3348529 -1.7243018 0.77469993 5589555
0.34499946 -1.7243018 0.77469993 5589811
0.35514602 -1.7243018 0.77469999 5589554
0.36529264 -1.7243018 0.77469999 5589554
0.37543917 -1.7243017 0.77469999 5589554
0.50649655 -1.7235512 0.77470016 5654312
0.51613563 -1.724975 0.77517205 5786416
0.52477443 -1.725639 0.77639014 5984573
0.53440207 -1.724301 0.77470022 5719846
0.54454869 -1.724301 0.77470022 5785381
0.55469525 -1.724301 0.77470022 5719588
0.56484181 -1.724301 0.77470034 5719588
0.57498837 -1.724301 0.77470034 5719846
0.58513492 -1.724301 0.77470034 5720104
0.59528148 -1.724301 0.77470034 5720105
0.60542804 -1.7243009 0.7747004 5720104
0.61468858 -1.7235508 0.7747004 5654052
0.62402713 -1.7243009 0.7747004 5654310
0.63417369 -1.7243009 0.7747004 5785641
0.64432031 -1.7243007 0.77470046 5785382
0.65446681 -1.7243007 0.77470046 5654052
0.66461337 -1.7243007 0.77470058 5785638
0.67475992 -1.7243007 0.77470046 5851690
0.68490648 -1.7243007 0.77470046 5851176
0.69505304 -1.7243005 0.77470058 5785380
0.70519966 -1.7243007 0.77470058 5785638
0.7153461 -1.7243007 0.77470058 5851431
0.72549272 -1.7243004 0.77470058 5851174
0.73563927 -1.7243004 0.77470058 5785379
0.74578577 -1.7243004 0.77470064 5785381
0.75593239 -1.7243004 0.77470064 5785639
0.76607895 -1.7243004 0.77470064 5654051
0.77622551 -1.7243004 0.77470064 5653795
0.78562701 -1.7250503 0.7747007 5719846
0.7948305 -1.7243004 0.77470064 5785639
0.804977 -1.7243 0.7747007 5785638
0.81512356 -1.7243 0.7747007 5719588
0.82431048 -1.7235501 0.77470076 5653795
0.83372259 -1.7243 0.7747007 5653795
0.84386915 -1.7242999 0.7747007 5654052
0.85401577 -1.7243 0.77470082 5654311
0.86416227 -1.7242999 0.77470082 5720105
0.87430882 -1.7243 0.77470082 5720104
0.88445538 -1.7242999 0.77470082 5654053
0.894602 -1.7242999 0.77470088 5654053
0.90474844 -1.7242999 0.77470088 5654054
0.91151285 -1.7242998 0.77470088 5588517
-0.91164023 -1.7131068 0.77469814 5655090
-0.90491128 -1.7131068 0.77469808 5655090
-0.89481783 -1.7131068 0.7746982 5655346
-0.88640666 -1.7131066 0.7746982 5655345
-0.54416806 -1.7147499 0.77512288 5326642
-0.53481936 -1.7131058 0.77469856 5719846
-0.52472591 -1.7131058 0.77469856 5851174
-0.51463252 -1.7131058 0.77469856 5851431
-0.50453913 -1.7131058 0.77469856 5851431
-0.49444571 -1.7131058 0.77469856 5851173
-0.48435235 -1.7131058 0.77469856 5850914
-0.4742589 -1.7131058 0.77469867 5851174
-0.46416554 -1.7131058 0.77469867 5785638
-0.45407209 -1.7131058 0.77469867 5719589
-0.4439787 -1.7131058 0.77469867 5719589
-0.43388525 -1.7131058 0.77469873 5785640
-0.42379189 -1.7131057 0.77469873 5785640
-0.41369846 -1.7131057 0.77469873 5719846
-0.40360507 -1.7131057 0.77469873 5719845
-0.39351168 -1.7131057 0.77469873 5654310
-0.38341823 -1.7131056 0.77469879 5654053
-0.37500709 -1.7131056 0.77469879 5719847
-0.36659589 -1.7131056 0.77469879 5720104
-0.35650253 -1.7131056 0.77469879 5785899
-0.34640908 -1.7131056 0.77469879 5785898
-0.33631572 -1.7131056 0.77469891 5785382
-0.32622227 -1.7131056 0.77469891 5719846
-0.31781113 -1.7131054 0.77469885 5654055
-0.11089638 -1.713105 0.77469909 5654310
-0.10416746 -1.7131048 0.77469903 5654311
-0.094074063 -1.7131048 0.77469915 5719847
-0.083980657 -1.7131048 0.77469915 5720103
0.11452276 -1.7131041 0.77469945 5720620
0.12461615 -1.7131041 0.77469945 5785898
0.13470954 -1.7131039 0.77469951 5785898
0.14480293 -1.7131039 0.77469951 5786155
0.15489632 -1.7131039 0.77469951 5720363
0.16498969 -1.7131039 0.77469951 5720363
0.17508309 -1.7131039 0.77469963 5786157
0.18517648 -1.7131039 0.77469963 5851694
0.19526987 -1.7131039 0.77469963 5720881
0.20199879 -1.7131039 0.77469963 5720622
0.24741903 -1.7131038 0.77469969 5654829
0.25583017 -1.7131038 0.77469969 5589035
0.26592356 -1.7131037 0.77469975 5523244
0.27601695 -1.7131037 0.77469975 5457451
0.28611031 -1.7131037 0.77469987 5523502
0.2962037 -1.7131037 0.77469987 5655090
0.30629709 -1.7131037 0.77469987 5655090
0.31639045 -1.7131034 0.77469987 5655090
0.32648385 -1.7131034 0.77469987 5655346
0.33657727 -1.7131034 0.77469987 5655089
0.34498838 -1.7131033 0.77469993 5589553
0.35339952 -1.7131033 0.77469993 5589553
0.36349294 -1.7131033 0.77469993 5589553
0.37358627 -1.7131032 0.77469999 5589554
0.50480014 -1.7131028 0.77470016 5720363
0.51489353 -1.7131028 0.77470016 5720363
0.52498692 -1.7131028 0.77470016 5720362
0.53508031 -1.7131028 0.77470016 5785898
0.5451737 -1.7131027 0.77470022 5851432
0.55526704 -1.7131027 0.77470022 5851432
0.56536043 -1.7131027 0.77470034 5785896
0.57545382 -1.7131027 0.77470034 5785898
0.58554721 -1.7131027 0.77470034 5785898
0.59564054 -1.7131025 0.77470034 5720362
0.60573393 -1.7131025 0.77470034 5785641
0.61582726 -1.7131023 0.77470034 5785382
0.62592065 -1.7131023 0.77470034 5785639
0.63601404 -1.7131023 0.77470034 5785638
0.64610744 -1.7131023 0.77470034 5719845
0.65620077 -1.7131023 0.7747004 5654053
0.66629416 -1.7131023 0.7747004 5719846
0.67638749 -1.7131023 0.7747004 5654310
0.68648082 -1.7131023 0.7747004 5785382
0.69657421 -1.7131022 0.77470046 5851430
0.70498538 -1.7131022 0.77470046 5851431
0.71339649 -1.7131022 0.77470046 5851431
0.72348982 -1.713102 0.77470046 5851174
0.73358321 -1.713102 0.77470046 5850914
0.7436766 -1.713102 0.77470058 5851174
0.75376993 -1.713102 0.77470058 5785638
0.76386333 -1.713102 0.77470058 5719845
0.7739566 -1.7131019 0.77470064 5719589
0.78405005 -1.7131019 0.77470064 5785640
0.79414344 -1.7131019 0.77470064 5785641
0.80423683 -1.7131019 0.77470064 5719847
0.8143301 -1.7131017 0.7747007 5719845
0.82442349 -1.7131017 0.7747007 5719846
0.83451682 -1.7131017 0.77470082 5654053
0.84461021 -1.7131017 0.7747007 5654311
0.85470361 -1.7131017 0.77470082 5720105
0.86479694 -1.7131017 0.77470082 5786155
0.87489027 -1.7131015 0.77470082 5785898
0.8849836 -1.7131015 0.77470082 5785381
0.89507705 -1.7131015 0.77470082 5719846
0.90517038 -1.7131015 0.77470082 5588518
0.91189927 -1.7131015 0.77470088 5588262
-0.91174322 -1.7057105 0.77469814 5655346
-0.9050377 -1.7057105 0.77469808 5589553
-0.89497942 -1.7057105 0.77469808 5589553
-0.88492113 -1.7057105 0.77469808 5589552
-0.54293948 -1.7057097 0.7746985 5588262
-0.53623396 -1.7057098 0.7746985 5588518
-0.52617568 -1.7057098 0.7746985 5785639
-0.51611739 -1.7057096 0.7746985 5851433
-0.50605911 -1.7057096 0.77469856 5851432
-0.49600089 -1.7057096 0.77469856 5851430
-0.4859426 -1.7057096 0.77469856 5851172
-0.47588432 -1.7057096 0.77469856 5851173
-0.46582606 -1.7057095 0.77469856 5785638
-0.45576775 -1.7057095 0.77469856 5719588
-0.4457095 -1.7057095 0.77469856 5654053
-0.43565121 -1.7057095 0.77469856 5720105
-0.42559299 -1.7057095 0.77469867 5785898
-0.41553465 -1.7057093 0.77469867 5720103
-0.40547642 -1.7057093 0.77469867 5785639
-0.39541808 -1.7057093 0.77469867 5720104
-0.38535988 -1.7057093 0.77469867 5588776
-0.3753016 -1.7057093 0.77469867 5654311
-0.36524332 -1.7057093 0.77469867 5720105
-0.35518503 -1.7057091 0.77469873 5786157
-0.34512675 -1.7057091 0.77469873 5785899
-0.33506849 -1.7057091 0.77469873 5785639
-0.32501024 -1.7057091 0.77469873 5654310
-0.31662834 -1.7057092 0.77469873 5588518
-0.11043382 -1.7057087 0.77469903 5654311
-0.10372829 -1.7057086 0.77469903 5654311
-0.093670033 -1.7057086 0.77469903 5720104
-0.083611764 -1.7057085 0.77469915 5720105
0.11420071 -1.7057079 0.77469939 5720620
0.12425897 -1.7057079 0.77469939 5720363
0.13431722 -1.7057079 0.77469945 5785898
0.14437547 -1.7057079 0.77469945 5785898
0.15443373 -1.7057079 0.77469945 5720105
0.164492 -1.7057079 0.77469945 5720363
0.17455025 -1.7057077 0.77469951 5786156
0.1846085 -1.7057077 0.77469951 5786414
0.19466674 -1.7057076 0.77469951 5786415
0.20137225 -1.7057076 0.77469957 5786158
0.24831077 -1.7057074 0.77469963 5654827
0.25501627 -1.7057072 0.77469969 5589034
0.26507449 -1.7057072 0.77469969 5523242
0.27513278 -1.7057072 0.77469969 5457450
0.28519103 -1.7057072 0.77469969 5589296
0.29524928 -1.7057072 0.77469975 5720885
0.30530751 -1.7057072 0.77469975 5655347
0.31536576 -1.7057072 0.77469987 5589553
0.32542402 -1.7057072 0.77469987 5589553
0.33548227 -1.7057072 0.77469987 5589552
0.34554052 -1.7057071 0.77469987 5589553
0.35559878 -1.7057071 0.77469987 5589296
0.365657 -1.7057071 0.77469987 5589295
0.37403888 -1.7057071 0.77469987 5589297
0.49976695 -1.7057066 0.77470011 5720622
0.50647241 -1.7057065 0.77470016 5720365
0.51653069 -1.7057065 0.77470016 5720363
0.52658892 -1.7057065 0.77470016 5720106
0.53664714 -1.7057065 0.77470016 5785898
0.54502904 -1.7057065 0.77470022 5851690
0.55341089 -1.7057065 0.77470022 5785897
0.56346917 -1.7057065 0.77470022 5720104
0.5735274 -1.7057062 0.77470034 5785899
0.58358562 -1.7057062 0.77470034 5720363
0.59364384 -1.7057062 0.77470034 5720362
0.60370207 -1.7057062 0.77470034 5720106
0.61376029 -1.7057062 0.77470034 5720104
0.62381858 -1.7057061 0.7747004 5720362
0.63387674 -1.7057061 0.7747004 5719846
0.64393502 -1.7057061 0.7747004 5654311
0.65399325 -1.7057061 0.7747004 5654310
0.66405147 -1.705706 0.77470046 5654311
0.67410976 -1.705706 0.77470046 5588518
0.68416792 -1.705706 0.77470046 5654054
0.69422621 -1.705706 0.77470046 5785639
0.70428443 -1.705706 0.77470046 5851433
0.71434265 -1.705706 0.77470046 5851432
0.72440094 -1.7057058 0.77470046 5851174
0.73445916 -1.7057058 0.77470046 5851172
0.74451733 -1.7057056 0.77470058 5851173
0.75457555 -1.7057056 0.77470058 5785638
0.76463383 -1.7057056 0.77470058 5654052
0.77469206 -1.7057056 0.77470064 5654053
0.78475028 -1.7057056 0.77470064 5720106
0.79480845 -1.7057056 0.77470064 5785642
0.80486673 -1.7057056 0.77470064 5719847
0.81492496 -1.7057055 0.7747007 5785640
0.82498318 -1.7057055 0.7747007 5719848
0.83504146 -1.7057055 0.7747007 5588776
0.84509963 -1.7057053 0.77470082 5720103
0.85515785 -1.7057053 0.77470082 5785642
0.86521608 -1.7057053 0.77470082 5786157
0.87527436 -1.7057053 0.77470082 5785899
0.88533252 -1.7057053 0.77470082 5785639
0.89539081 -1.7057052 0.77470082 5654310
0.90544897 -1.7057052 0.77470082 5588262
0.9121545 -1.7057052 0.77470082 5588518
-0.91189629 -1.6947186 0.77469802 5655089
-0.90522557 -1.6947185 0.77469802 5589553
-0.8952195 -1.6947184 0.77469808 5589296
-0.88521343 -1.6947184 0.77469808 5523501
-0.877469 -1.6935028 0.77469808 5589039
-0.54265028 -1.6959338 0.77594703 4340523
-0.53500092 -1.6947178 0.7746985 5654055
-0.52499491 -1.6947175 0.7746985 5785641
-0.51498884 -1.6947178 0.7746985 5785897
-0.50498277 -1.6947175 0.7746985 5851433
-0.49497673 -1.6947174 0.77469856 5851432
-0.48497066 -1.6947175 0.7746985 5851431
-0.47496462 -1.6947175 0.77469856 5851432
-0.46495852 -1.6947175 0.77469856 5785641
-0.45495248 -1.6947174 0.77469856 5654054
-0.44494638 -1.6947174 0.77469867 5654053
-0.43494034 -1.6947175 0.77469867 5720104
-0.42493427 -1.6947173 0.77469856 5719848
-0.41492823 -1.6947174 0.77469867 5785640
-0.40492213 -1.6947173 0.77469867 5785640
-0.39491609 -1.6947173 0.77469867 5654311
-0.38491002 -1.6947173 0.77469867 5588519
-0.37490395 -1.6947173 0.77469867 5720104
-0.36489794 -1.6947173 0.77469867 5720362
-0.35489187 -1.6947173 0.77469867 5720364
-0.34488574 -1.6947173 0.77469873 5720363
-0.33487973 -1.694717 0.77469873 5785898
-0.32487366 -1.694717 0.77469873 5654312
-0.31575274 -1.6939876 0.77469873 5588776
-0.11284781 -1.6910695 0.77469903 5720105
-0.10641098 -1.6947166 0.77469903 5654570
-0.096404932 -1.6947165 0.77469903 5654570
-0.086398877 -1.6947165 0.77469915 5720107
-0.079728171 -1.6947165 0.77469909 5654571
0.11372209 -1.6947159 0.77469945 5720364
0.12372813 -1.6947159 0.77469945 5720363
0.13373417 -1.6947159 0.77469945 5720107
0.14374022 -1.6947159 0.77469945 5654312
0.15374626 -1.6947156 0.77469945 5588518
0.1637523 -1.6947156 0.77469945 5588775
0.17375834 -1.6947155 0.77469951 5720106
0.18376438 -1.6947155 0.77469951 5720620
0.19377042 -1.6947155 0.77469951 5720363
0.20044112 -1.6947155 0.77469957 5720361
0.247136 -1.6947155 0.77469963 5720364
0.25380665 -1.6947154 0.77469969 5654570
0.26381275 -1.6947155 0.77469969 5588778
0.27381876 -1.6947151 0.77469969 5522985
0.2838248 -1.6947151 0.77469969 5589038
0.29383078 -1.694715 0.77469969 5655346
0.30383685 -1.6947151 0.77469969 5655090
0.31472203 -1.6941941 0.77469975 5589553
0.32551369 -1.694715 0.77469975 5589039
0.3355197 -1.694715 0.77469975 5523502
0.34552577 -1.694715 0.77469975 5589296
0.35553184 -1.6947151 0.77469975 5589553
0.36553788 -1.6947151 0.77469987 5589296
0.37296844 -1.6959306 0.77469987 5589553
0.49687541 -1.6928911 0.77470005 5522984
0.50562227 -1.6947144 0.77470011 5654829
0.51562834 -1.6947144 0.77470011 5720363
0.52563435 -1.6947145 0.77470016 5720106
0.53564036 -1.6947145 0.77470016 5720362
0.54564637 -1.6947144 0.77470016 5785898
0.55565244 -1.6947144 0.77470016 5720105
0.56565845 -1.6947142 0.77470016 5719848
0.57566446 -1.6947142 0.77470016 5720105
0.58567053 -1.6947142 0.77470022 5720364
0.59567654 -1.6947142 0.77470022 5654572
0.60568255 -1.6947141 0.77470022 5589036
0.61568862 -1.6947142 0.77470022 5654828
0.62569457 -1.6947141 0.77470022 5654571
0.63570064 -1.6947141 0.77470034 5588775
0.64570665 -1.6947142 0.77470034 5654568
0.65571272 -1.6947141 0.77470034 5720104
0.66571873 -1.6947141 0.7747004 5654312
0.67572474 -1.694714 0.77470046 5522725
0.68573076 -1.694714 0.77470046 5654311
0.69573671 -1.694714 0.77470046 5785641
0.70574278 -1.694714 0.77470046 5785897
0.71574879 -1.694714 0.77470046 5851433
0.7257548 -1.694714 0.77470046 5851432
0.73576087 -1.694714 0.77470058 5851431
0.74576688 -1.6947136 0.77470058 5851432
0.75577283 -1.6947136 0.77470058 5720105
0.76577884 -1.6947135 0.77470058 5654054
0.77578491 -1.6947136 0.77470058 5654310
0.78579092 -1.6947136 0.77470064 5720104
0.79579693 -1.6947135 0.77470064 5719848
0.805803 -1.6947135 0.77470064 5785896
0.81580895 -1.6947136 0.77470064 5785640
0.82581496 -1.6947136 0.77470064 5588519
0.83582097 -1.6947135 0.7747007 5654056
0.84582704 -1.6947132 0.77470064 5785641
0.85583305 -1.6947135 0.7747007 5720362
0.86583906 -1.6947132 0.7747007 5720364
0.87584513 -1.6947132 0.7747007 5720363
0.88585109 -1.6947132 0.7747007 5785898
0.89585716 -1.6947131 0.7747007 5654312
0.90586305 -1.6947131 0.7747007 5588776
0.91253376 -1.6947131 0.77470076 5654313
-0.91204792 -1.6838275 0.77469802 5655346
-0.90541172 -1.6838275 0.77469802 5655347
-0.89545745 -1.6838275 0.77469802 5589553
-0.88550299 -1.6838274 0.77469808 5523502
-0.87554866 -1.6838274 0.77469808 5589296
-0.8689124 -1.6838274 0.77469808 5655348
-0.54433042 -1.6850094 0.77657896 3748906
-0.53378308 -1.6838268 0.77469844 5654312
-0.52382874 -1.6838268 0.77469844 5851690
-0.51387447 -1.6838268 0.77469844 5785897
-0.50392008 -1.6838266 0.7746985 5785640
-0.49396577 -1.6838266 0.7746985 5785896
-0.48401144 -1.6838266 0.7746985 5851431
-0.47405711 -1.6838266 0.7746985 5785896
-0.46410277 -1.6838264 0.7746985 5720105
-0.45414844 -1.6838264 0.7746985 5720105
-0.44419417 -1.6838264 0.7746985 5720105
-0.43423977 -1.6838264 0.7746985 5720104
-0.4242855 -1.6838264 0.7746985 5654311
-0.41433111 -1.6838263 0.77469856 5785897
-0.40437683 -1.6838263 0.77469856 5720105
-0.3944225 -1.6838263 0.77469856 5588518
-0.38446817 -1.6838263 0.77469856 5654567
-0.37451383 -1.6838261 0.77469856 5786156
-0.3645595 -1.6838261 0.77469856 5720621
-0.3546052 -1.6838261 0.77469856 5720363
-0.34465083 -1.6838261 0.77469856 5720362
-0.33469653 -1.6838261 0.77469856 5654570
-0.32474217 -1.6838261 0.77469867 5654313
-0.31478786 -1.6838261 0.77469867 5654570
-0.30815166 -1.6838261 0.77469867 5654570
-0.11404234 -1.6838255 0.77469897 5720104
-0.10574707 -1.6838256 0.77469897 5720104
-0.095792763 -1.6838255 0.77469903 5654312
-0.085838437 -1.6838255 0.77469903 5654312
-0.079202227 -1.6838255 0.77469903 5720105
0.10992977 -1.6838249 0.77469939 5785897
0.11656597 -1.6838249 0.77469945 5785897
0.12652028 -1.6838249 0.77469945 5785898
0.13647459 -1.6838249 0.77469945 5719847
0.1464289 -1.6838247 0.77469945 5654310
0.15638322 -1.6838247 0.77469945 5588518
0.16633753 -1.6838247 0.77469945 5588518
0.17629184 -1.6838247 0.77469945 5654313
0.18624614 -1.6838245 0.77469951 5654569
0.19620045 -1.6838245 0.77469951 5720104
0.20283666 -1.6838245 0.77469951 5720105
0.24763103 -1.6838243 0.77469963 5654829
0.25592628 -1.6838242 0.77469963 5654572
0.26588061 -1.6838242 0.77469963 5588778
0.27583489 -1.6838242 0.77469969 5588779
0.28578922 -1.6838242 0.77469969 5589294
0.2957435 -1.6838242 0.77469969 5655088
0.30569783 -1.6838242 0.77469975 5655346
0.3156521 -1.6838242 0.77469975 5655348
0.32560644 -1.6838242 0.77469975 5589296
0.33556071 -1.6838241 0.77469975 5523502
0.34551501 -1.6838241 0.77469987 5589553
0.35546932 -1.6838241 0.77469987 5655348
0.36542359 -1.6838239 0.77469987 5655345
0.37205982 -1.6838239 0.77469987 5655345
0.49482951 -1.6838236 0.77469999 5522727
0.50478381 -1.6838235 0.77469999 5588777
0.51473808 -1.6838235 0.77469999 5654313
0.52469236 -1.6838235 0.77470011 5654311
0.53464669 -1.6838235 0.77470011 5720106
0.54460096 -1.6838235 0.77470016 5720620
0.55455524 -1.6838232 0.77470016 5720107
0.56450957 -1.6838232 0.77470016 5654312
0.57446384 -1.6838232 0.77470016 5588777
0.58441812 -1.6838232 0.77470016 5589036
0.59437245 -1.6838232 0.77470016 5589035
0.60432673 -1.6838232 0.77470022 5588778
0.614281 -1.6838231 0.77470034 5588779
0.62423533 -1.6838231 0.77470034 5589035
0.63418961 -1.6838231 0.77470034 5654312
0.64414394 -1.6838231 0.77470034 5720362
0.65409821 -1.6838231 0.77470034 5720363
0.66405249 -1.683823 0.77470034 5654313
0.67400676 -1.683823 0.7747004 5522726
0.68396109 -1.683823 0.7747004 5654055
0.69391537 -1.683823 0.7747004 5851434
0.70386964 -1.683823 0.7747004 5785897
0.71382385 -1.6838228 0.7747004 5785640
0.72377825 -1.6838228 0.77470046 5785640
0.73373246 -1.6838228 0.77470046 5851431
0.74368674 -1.6838226 0.77470046 5785896
0.75364107 -1.6838226 0.77470046 5720105
0.76359534 -1.6838226 0.77470046 5720105
0.77354962 -1.6838226 0.77470058 5720105
0.78350383 -1.6838226 0.77470058 5720104
0.79345822 -1.6838226 0.77470064 5654311
0.8034125 -1.6838226 0.77470064 5720105
0.81336671 -1.6838226 0.77470064 5720105
0.82498014 -1.6838225 0.77470064 5588518
0.83659339 -1.6838225 0.77470064 5720104
0.84654766 -1.6838223 0.7747007 5786156
0.856502 -1.6838223 0.7747007 5720365
0.86645627 -1.6838223 0.7747007 5720363
0.87641048 -1.6838223 0.77470082 5720362
0.88636476 -1.6838223 0.77470082 5654314
0.89631909 -1.6838222 0.77470082 5654313
0.90627337 -1.6838222 0.77470082 5654570
0.91290957 -1.6838222 0.77470082 5654570
-0.91214812 -1.6766334 0.7746979 5720624
-0.90553468 -1.6766334 0.77469796 5720881
-0.89561445 -1.6766332 0.77469796 5589553
-0.88569427 -1.6766332 0.77469796 5523502
-0.87577415 -1.6766332 0.77469796 5523503
-0.86750734 -1.6766332 0.77469796 5589296
-0.54535735 -1.6753986 0.77626896 4143144
-0.53518182 -1.6766325 0.77469844 5654313
-0.5252617 -1.6766325 0.77469844 5851690
-0.51534152 -1.6766324 0.77469844 5785897
-0.50542134 -1.6766324 0.77469844 5720105
-0.49550119 -1.6766324 0.77469844 5785640
-0.48558107 -1.6766324 0.77469844 5851431
-0.47566089 -1.6766324 0.77469844 5785897
-0.46574077 -1.6766324 0.7746985 5720361
-0.45582056 -1.6766323 0.7746985 5720105
-0.44590044 -1.6766323 0.7746985 5720105
-0.43598029 -1.6766323 0.7746985 5720105
-0.42606011 -1.6766323 0.7746985 5654311
-0.41613993 -1.6766323 0.77469856 5720104
-0.40621981 -1.6766323 0.77469856 5719847
-0.39629963 -1.6766323 0.77469856 5588518
-0.38637948 -1.6766323 0.77469856 5654311
-0.37645933 -1.6766323 0.77469856 5785899
-0.36653915 -1.6766323 0.77469856 5720364
-0.35496566 -1.6766322 0.77469862 5720107
-0.34339213 -1.6766323 0.77469856 5654571
-0.33347201 -1.676632 0.77469867 5588520
-0.32355186 -1.676632 0.77469867 5588520
-0.31363168 -1.676632 0.77469867 5588776
-0.30536491 -1.676632 0.77469867 5654312
-0.11357532 -1.6766315 0.77469897 5720105
-0.10530853 -1.6766313 0.77469903 5720104
-0.095388375 -1.6766313 0.77469903 5654311
-0.085468233 -1.6766313 0.77469903 5654054
-0.078854807 -1.6766313 0.77469903 5654311
0.1096279 -1.6766305 0.77469933 5786154
0.11624134 -1.6766305 0.77469939 5786155
0.12616147 -1.6766305 0.77469939 5785898
0.13608161 -1.6766305 0.77469939 5785640
0.14600174 -1.6766304 0.77469939 5720104
0.15592189 -1.6766304 0.77469939 5654312
0.16584201 -1.6766304 0.77469945 5654570
0.17576216 -1.6766304 0.77469945 5654312
0.1856823 -1.6766304 0.77469945 5654312
0.19560243 -1.6766304 0.77469945 5720106
0.20221585 -1.6766304 0.77469945 5720364
0.24685645 -1.6766301 0.77469957 5654571
0.25512323 -1.67663 0.77469963 5654314
0.26504335 -1.67663 0.77469963 5654315
0.27496347 -1.67663 0.77469963 5589293
0.28488365 -1.67663 0.77469963 5654830
0.29480377 -1.67663 0.77469969 5654831
0.30472389 -1.6766299 0.77469969 5655087
0.31464401 -1.6766299 0.77469969 5655346
0.32456413 -1.6766297 0.77469975 5589296
0.33448425 -1.6766297 0.77469975 5523502
0.34440443 -1.6766297 0.77469975 5523503
0.35432455 -1.6766297 0.77469975 5589553
0.36424467 -1.6766297 0.77469987 5655089
0.37085807 -1.6766297 0.77469981 5655089
0.48989958 -1.6766293 0.77470005 5522983
0.49651298 -1.6766294 0.77469999 5522726
0.50643307 -1.6766294 0.77469999 5588519
0.51635319 -1.6766292 0.77470011 5588518
0.52627343 -1.6766292 0.77470011 5654053
0.53619355 -1.6766292 0.77470011 5654569
0.54611355 -1.6766291 0.77470016 5720362
0.55603379 -1.6766291 0.77470016 5719848
0.56595391 -1.6766291 0.77470016 5654311
0.57587403 -1.6766291 0.77470016 5588520
0.58579409 -1.6766289 0.77470022 5588779
0.59571427 -1.6766289 0.77470022 5588521
0.60563439 -1.6766289 0.77470022 5588521
0.61555439 -1.6766287 0.77470034 5588778
0.62547457 -1.6766287 0.77470034 5589035
0.63539475 -1.6766287 0.77470034 5654569
0.64531475 -1.6766287 0.77470034 5720362
0.65523487 -1.6766287 0.77470034 5720105
0.66515499 -1.6766287 0.77470034 5588776
0.67507511 -1.6766287 0.7747004 5522726
0.68499523 -1.6766287 0.7747004 5654313
0.69491535 -1.6766286 0.7747004 5851690
0.70483547 -1.6766286 0.7747004 5785897
0.71475559 -1.6766286 0.7747004 5720105
0.72467571 -1.6766286 0.7747004 5851432
0.73459578 -1.6766286 0.7747004 5851431
0.74451596 -1.6766285 0.77470046 5785897
0.75443608 -1.6766285 0.77470046 5720105
0.7643562 -1.6766285 0.77470046 5720105
0.77427626 -1.6766285 0.77470046 5720105
0.78419644 -1.6766285 0.77470046 5720104
0.7941165 -1.6766282 0.77470058 5654311
0.80403662 -1.6766282 0.77470058 5720104
0.81395674 -1.6766282 0.77470058 5719847
0.82387686 -1.6766282 0.77470058 5588262
0.83379698 -1.6766281 0.77470064 5654312
0.84371704 -1.6766281 0.77470064 5785899
0.85363716 -1.6766281 0.77470064 5720364
0.86355728 -1.676628 0.7747007 5720363
0.8734774 -1.6766281 0.77470064 5654571
0.88339752 -1.676628 0.7747007 5588777
0.89497089 -1.6766279 0.77470076 5588776
0.90654445 -1.6766278 0.77470082 5588776
0.91315782 -1.6766279 0.77470076 5654312
-0.91229701 -1.6659403 0.7746979 5655087
-0.90571743 -1.6659403 0.77469784 5655089
-0.89584804 -1.6659399 0.77469796 5589296
-0.88597864 -1.6659399 0.77469796 5457709
-0.8761093 -1.6659399 0.77469796 5457451
-0.86623996 -1.6659402 0.77469784 5523244
-0.85979962 -1.662392 0.7746979 5589038
-0.54572815 -1.6656258 0.77565628 4734504
-0.53561878 -1.6659393 0.77469832 5654313
-0.5249415 -1.6664461 0.77469832 5785899
-0.51423228 -1.6659393 0.77469844 5785898
-0.504363 -1.6659393 0.77469844 5785641
-0.4944936 -1.6659393 0.77469832 5785896
-0.48462424 -1.6659392 0.77469832 5851432
-0.4747549 -1.665939 0.77469844 5785640
-0.4648855 -1.6659392 0.7746985 5720104
-0.45501614 -1.6659392 0.7746985 5720103
-0.4451468 -1.6659392 0.7746985 5720103
-0.43527746 -1.665939 0.7746985 5720103
-0.42540801 -1.665939 0.7746985 5719845
-0.4155387 -1.6659392 0.7746985 5719846
-0.40486166 -1.6654321 0.77469856 5654053
-0.39415789 -1.665939 0.7746985 5522725
-0.38428855 -1.665939 0.77469856 5654311
-0.37441912 -1.665939 0.77469856 5785898
-0.36454979 -1.665939 0.77469856 5720362
-0.35468045 -1.665939 0.77469856 5720363
-0.34481108 -1.665939 0.77469867 5654313
-0.33494172 -1.6659389 0.77469867 5522725
-0.32507232 -1.665939 0.77469867 5522726
-0.31520298 -1.665939 0.77469867 5522982
-0.30533361 -1.665939 0.77469867 5654054
-0.29820633 -1.6623908 0.77469862 5720103
-0.12086122 -1.6623902 0.77469897 5720106
-0.11452603 -1.6659383 0.77469897 5654569
-0.10465669 -1.6659383 0.77469897 5654569
-0.094787322 -1.665938 0.77469897 5588519
-0.08491797 -1.665938 0.77469897 5588261
-0.0783384 -1.6659381 0.77469897 5588518
0.10917924 -1.6659375 0.77469933 5786156
0.11575881 -1.6659374 0.77469927 5786156
0.12562813 -1.6659375 0.77469927 5785899
0.1354975 -1.6659375 0.77469927 5720363
0.14536683 -1.6659374 0.77469939 5654569
0.15523617 -1.6659373 0.77469939 5654568
0.16510552 -1.6659373 0.77469939 5654569
0.17497486 -1.6659373 0.77469939 5654311
0.18484421 -1.6659373 0.77469939 5654312
0.19471355 -1.6659371 0.77469945 5654571
0.20228577 -1.6647545 0.77469945 5589035
0.24570514 -1.6659371 0.77469957 5654571
0.25392959 -1.6659371 0.77469963 5588520
0.2646783 -1.6654302 0.77469963 5588777
0.27531037 -1.6659369 0.77469963 5589036
0.2851797 -1.6659369 0.77469969 5654572
0.29504904 -1.6659369 0.77469969 5654572
0.30491838 -1.6659369 0.77469969 5654830
0.31478769 -1.6659368 0.77469969 5655089
0.32465708 -1.6659369 0.77469969 5589295
0.33452639 -1.6659368 0.77469969 5457708
0.34518093 -1.6664437 0.77469969 5457451
0.35591277 -1.6659366 0.77469975 5523245
0.36413723 -1.6659367 0.77469975 5589296
0.48833361 -1.6647536 0.77469999 5654831
0.49572551 -1.6659364 0.77469999 5588779
0.50559479 -1.6659361 0.77469999 5588520
0.51546413 -1.6659361 0.77470011 5588519
0.52533358 -1.6659361 0.77470011 5588261
0.53520286 -1.6659361 0.77470011 5654310
0.54507214 -1.665936 0.77470011 5654310
0.55494148 -1.665936 0.77470011 5588261
0.56481081 -1.665936 0.77470016 5588518
0.57468015 -1.665936 0.77470016 5588776
0.58454943 -1.665936 0.77470016 5589034
0.59441882 -1.665936 0.77470016 5588777
0.6042881 -1.6659359 0.77470022 5588520
0.61415738 -1.6659359 0.77470022 5588778
0.62402672 -1.6659359 0.77470022 5589293
0.63475192 -1.6664428 0.77470022 5654570
0.6454131 -1.6659359 0.77470022 5654827
0.65528244 -1.6659359 0.77470022 5654570
0.66515177 -1.6659359 0.77470034 5588777
0.67502111 -1.6659359 0.77470022 5522727
0.68489045 -1.6659359 0.77470022 5720106
0.69475967 -1.6659356 0.77470034 5785899
0.704629 -1.6659356 0.7747004 5785898
0.71526778 -1.6654284 0.77470046 5785641
0.72600979 -1.6659355 0.7747004 5851432
0.73587912 -1.6659355 0.7747004 5851432
0.74574834 -1.6659355 0.77470046 5785640
0.7556178 -1.6659355 0.7747004 5720104
0.76548702 -1.6659354 0.77470046 5720103
0.77535635 -1.6659352 0.77470046 5720104
0.78522569 -1.6659354 0.77470046 5720103
0.79509497 -1.6659352 0.77470058 5719845
0.80496436 -1.6659352 0.77470058 5719846
0.8148337 -1.6659352 0.77470058 5654053
0.82470298 -1.665935 0.77470058 5522725
0.83457226 -1.665935 0.77470064 5654055
0.84444159 -1.665935 0.77470064 5785897
0.85431093 -1.665935 0.77470064 5720362
0.86418027 -1.6659349 0.77470064 5720363
0.8740496 -1.6659349 0.77470064 5654313
0.88391894 -1.6659349 0.77470064 5522725
0.8937881 -1.6659349 0.7747007 5522726
0.90365744 -1.6659349 0.7747007 5522982
0.91188192 -1.6659348 0.77470076 5588518
-0.91244447 -1.655344 0.77469784 5655346
-0.90589839 -1.655344 0.77469784 5655347
-0.89607936 -1.655344 0.77469784 5655090
-0.88626033 -1.6553439 0.77469796 5589297
-0.8764413 -1.6553439 0.77469796 5457966
-0.86498576 -1.6553439 0.7746979 5457709
-0.85516673 -1.6553439 0.7746979 5589295
-0.55096561 -1.651298 0.77682829 2434597
-0.54737866 -1.6568546 0.7761234 4537643
-0.536048 -1.6553432 0.77469832 5654571
-0.52622896 -1.6553432 0.77469832 5785899
-0.51640993 -1.6553432 0.77469832 5785899
-0.50495434 -1.6553431 0.77469838 5785898
-0.49349889 -1.6553431 0.77469844 5851433
-0.48367986 -1.6553431 0.77469844 5851432
-0.47386077 -1.6553431 0.77469844 5720104
-0.4640418 -1.6553429 0.77469844 5720105
-0.45422277 -1.6553429 0.77469844 5785639
-0.44440374 -1.6553429 0.77469844 5851433
-0.43458471 -1.6553429 0.77469844 5785896
-0.42476568 -1.6553429 0.77469844 5785638
-0.41494659 -1.6553427 0.7746985 5785897
-0.40512761 -1.6553427 0.7746985 5654312
-0.39530858 -1.6553427 0.7746985 5588262
-0.38548949 -1.6553427 0.7746985 5588775
-0.37567046 -1.6553427 0.77469856 5720105
-0.36585149 -1.6553427 0.7746985 5785898
-0.35603246 -1.6553427 0.7746985 5720361
-0.34621343 -1.6553427 0.77469856 5654312
-0.3363944 -1.6553427 0.77469856 5522468
-0.32493883 -1.6553427 0.77469856 5522725
-0.3134833 -1.6553427 0.77469856 5522725
-0.30366427 -1.6553427 0.77469856 5654054
-0.29548174 -1.6553427 0.77469862 5719847
-0.12201229 -1.6553421 0.77469891 5720621
-0.11382977 -1.6553421 0.77469891 5654828
-0.10401075 -1.655342 0.77469891 5654313
-0.09419173 -1.655342 0.77469891 5588518
-0.084372699 -1.6553417 0.77469897 5522725
-0.077826694 -1.655342 0.77469891 5588262
0.10873464 -1.6553414 0.77469927 5786413
0.11528065 -1.6553413 0.77469939 5786414
0.12509966 -1.6553413 0.77469939 5786157
0.13491866 -1.6553413 0.77469939 5720620
0.14473768 -1.6553411 0.77469939 5654570
0.15455669 -1.6553411 0.77469939 5720106
0.16437571 -1.6553411 0.77469945 5720363
0.17419471 -1.655341 0.77469945 5720105
0.18401372 -1.655341 0.77469945 5720363
0.19383274 -1.655341 0.77469945 5654827
0.20201525 -1.655341 0.77469945 5654828
0.2462008 -1.655341 0.77469951 5589034
0.25601977 -1.6553408 0.77469951 5588519
0.2658388 -1.6553408 0.77469951 5589036
0.2756578 -1.6553408 0.77469963 5654830
0.2854768 -1.6553408 0.77469963 5654830
0.29529583 -1.6553408 0.77469963 5654830
0.30511481 -1.6553407 0.77469969 5655089
0.31493384 -1.6553407 0.77469969 5655346
0.32475284 -1.6553407 0.77469969 5655090
0.33457184 -1.6553406 0.77469975 5589297
0.34439084 -1.6553406 0.77469975 5457966
0.35420981 -1.6553406 0.77469975 5457709
0.36239234 -1.6553404 0.77469981 5523759
0.48676634 -1.6553402 0.77469993 5589810
0.49494886 -1.6553401 0.77469999 5654829
0.50476784 -1.6553401 0.77469999 5654312
0.51458687 -1.6553401 0.77469999 5654312
0.52440584 -1.6553398 0.77469999 5654311
0.53422487 -1.6553398 0.77469999 5719846
0.54404384 -1.6553398 0.77469999 5719847
0.55386287 -1.6553398 0.77469999 5654053
0.56368184 -1.6553398 0.77470011 5588260
0.57350087 -1.6553398 0.77470011 5588517
0.58495629 -1.6553398 0.77470011 5654313
0.59641182 -1.6553397 0.77470016 5588520
0.6062308 -1.6553397 0.77470016 5588519
0.61604983 -1.6553397 0.77470016 5588778
0.6258688 -1.6553396 0.77470022 5654830
0.63568783 -1.6553396 0.77470022 5654828
0.64550674 -1.6553396 0.77470022 5654828
0.65532577 -1.6553396 0.77470022 5720363
0.66514474 -1.6553396 0.77470022 5654313
0.67496377 -1.6553396 0.77470022 5588778
0.68478274 -1.6553394 0.77470034 5720363
0.69460171 -1.6553394 0.77470034 5785899
0.70442075 -1.6553394 0.77470034 5785899
0.71423978 -1.6553394 0.77470034 5785898
0.72405869 -1.6553394 0.77470034 5851433
0.73387766 -1.6553394 0.77470034 5851432
0.74369669 -1.6553392 0.7747004 5785640
0.75351566 -1.6553392 0.7747004 5720105
0.76497114 -1.6553392 0.7747004 5785639
0.77642661 -1.6553392 0.7747004 5851434
0.78624558 -1.6553391 0.77470046 5785639
0.79606462 -1.6553391 0.77470046 5785639
0.80588359 -1.6553391 0.77470046 5785897
0.81570262 -1.6553391 0.77470046 5654312
0.82552153 -1.6553389 0.77470046 5588518
0.8353405 -1.6553389 0.77470058 5654311
0.84515953 -1.6553389 0.77470058 5720105
0.8549785 -1.6553389 0.77470064 5785898
0.86479741 -1.6553389 0.77470064 5720105
0.87461644 -1.6553389 0.77470058 5654311
0.88443547 -1.6553388 0.77470064 5522468
0.89425445 -1.6553388 0.77470064 5522725
0.90407342 -1.6553388 0.77470064 5522725
0.91225588 -1.6553386 0.7747007 5588518
-0.91259038 -1.6448674 0.77469778 5589296
-0.90607756 -1.6448674 0.77469778 5523760
-0.89630824 -1.6448673 0.77469784 5589296
-0.88562328 -1.6443704 0.7746979 5655089
-0.87442887 -1.6453639 0.77469784 5589038
-0.86374396 -1.6448673 0.77469796 5523500
-0.85397476 -1.6448673 0.77469796 5589295
-0.84762037 -1.6413907 0.77469784 5655088
-0.55308229 -1.644787 0.77596718 4077352
-0.54461443 -1.6448666 0.77469826 5588777
-0.53484511 -1.6448665 0.77469826 5654570
-0.52507585 -1.6448665 0.77469826 5654827
-0.51530659 -1.6448665 0.77469826 5720363
-0.50553733 -1.6448665 0.77469826 5720105
-0.49494678 -1.6443698 0.77469826 5785897
-0.48437333 -1.6448665 0.77469832 5785639
-0.47460404 -1.6448665 0.77469832 5720104
-0.46483478 -1.6448665 0.77469832 5654569
-0.45506552 -1.6448665 0.77469832 5720105
-0.44529629 -1.6448665 0.77469832 5785899
-0.435527 -1.6448663 0.77469832 5785899
-0.42575774 -1.6448663 0.77469832 5720364
-0.4151623 -1.6453629 0.77469832 5720365
-0.40458825 -1.6448663 0.77469844 5654570
-0.39481899 -1.6448661 0.77469844 5588519
-0.3850497 -1.644866 0.77469844 5588775
-0.37528041 -1.644866 0.77469844 5720105
-0.36551118 -1.6448661 0.77469844 5720362
-0.35495445 -1.6443695 0.77469844 5654312
-0.34434721 -1.644866 0.7746985 5588518
-0.33457795 -1.644866 0.7746985 5588261
-0.32480869 -1.644866 0.7746985 5588261
-0.31503943 -1.644866 0.7746985 5588261
-0.30527017 -1.6448659 0.7746985 5588518
-0.29550087 -1.6448659 0.77469856 5654054
-0.28772917 -1.6437069 0.77469856 5654310
-0.12546453 -1.6441702 0.77469885 5720362
-0.11549922 -1.6453621 0.77469879 5720364
-0.10499755 -1.6448654 0.77469879 5654827
-0.094503753 -1.6443688 0.77469885 5654569
-0.083833583 -1.6448654 0.77469891 5654311
-0.07732074 -1.6448653 0.77469897 5588518
0.10829504 -1.6448647 0.77469921 5786157
0.11480788 -1.6448646 0.77469921 5786157
0.12457711 -1.6448646 0.77469927 5720621
0.13434635 -1.6448646 0.77469927 5720364
0.14411561 -1.6448646 0.77469927 5720106
0.15388486 -1.6448644 0.77469927 5720106
0.16454874 -1.6443678 0.77469933 5720105
0.17504878 -1.6448646 0.77469939 5720105
0.18555674 -1.6453609 0.77469933 5720106
0.19621825 -1.6448644 0.77469945 5720364
0.2037129 -1.6437055 0.77469945 5720365
0.24506445 -1.6448641 0.77469951 5654313
0.2548337 -1.644864 0.77469951 5588519
0.26460293 -1.6448641 0.77469951 5654571
0.27437219 -1.6448641 0.77469951 5654829
0.28414142 -1.644864 0.77469963 5654829
0.29477385 -1.6443675 0.77469963 5589294
0.30530536 -1.644864 0.77469963 5589295
0.31507462 -1.6448637 0.77469963 5523760
0.32484385 -1.6448637 0.77469963 5589552
0.33461308 -1.6448637 0.77469963 5655089
0.34515959 -1.6453604 0.77469969 5589038
0.35578251 -1.6448637 0.77469969 5523500
0.36229536 -1.6448638 0.77469969 5589038
0.47875279 -1.6413867 0.77469993 5655347
0.48522973 -1.6441679 0.77469993 5655089
0.49499065 -1.6453601 0.77469999 5654829
0.50557739 -1.6448631 0.77469999 5589034
0.51534671 -1.6448631 0.77469999 5654570
0.52511597 -1.6448631 0.77469999 5654569
0.53488517 -1.6448631 0.77470011 5720103
0.54465443 -1.6448631 0.77470011 5719847
0.55442369 -1.6448631 0.77470011 5654054
0.56499076 -1.6443663 0.77470011 5654053
0.57558751 -1.6448631 0.77470011 5588518
0.58535677 -1.6448631 0.77470011 5588778
0.59512597 -1.6448628 0.77470016 5654572
0.60489523 -1.6448628 0.77470016 5654314
0.61466449 -1.6448628 0.77470016 5588777
0.62443364 -1.6448628 0.77470016 5589037
0.6342029 -1.6448628 0.77470022 5654829
0.6448217 -1.6453594 0.77470022 5654828
0.65537232 -1.6448627 0.77470022 5720365
0.66514152 -1.6448627 0.77470022 5654570
0.67491072 -1.6448627 0.77470022 5588777
0.68467999 -1.6448627 0.77470034 5654570
0.6952157 -1.644366 0.77470028 5654827
0.70584393 -1.6448627 0.77470034 5654570
0.71561313 -1.6448627 0.7747004 5720105
0.72538233 -1.6448627 0.77470034 5785897
0.73515159 -1.6448625 0.7747004 5785639
0.74492079 -1.6448625 0.7747004 5720104
0.75468999 -1.6448625 0.7747004 5654569
0.76445919 -1.6448623 0.7747004 5720105
0.77422839 -1.6448625 0.77470046 5785899
0.78399771 -1.6448623 0.77470046 5785899
0.79465264 -1.6453588 0.77470052 5720364
0.80516714 -1.6448623 0.77470046 5720365
0.81493634 -1.6448622 0.77470046 5654570
0.82544053 -1.6443655 0.77470058 5588519
0.83610016 -1.6448622 0.77470046 5654311
0.84586936 -1.6448622 0.77470058 5720105
0.85563856 -1.6448622 0.77470058 5720106
0.86540776 -1.6448622 0.77470064 5654312
0.87517709 -1.6448621 0.77470064 5588518
0.88494629 -1.6448618 0.77470064 5588261
0.89471549 -1.6448621 0.77470064 5588261
0.90448475 -1.6448621 0.77470064 5588261
0.91262573 -1.6448619 0.77470064 5654054
-0.91273493 -1.6344846 0.77469772 5523503
-0.90625495 -1.6344846 0.77469778 5523502
-0.89491498 -1.6344845 0.77469778 5589296
-0.88357502 -1.6344846 0.77469778 5655089
-0.87385511 -1.6344846 0.77469778 5589036
-0.86413509 -1.6344846 0.77469778 5588521
-0.85441518 -1.6344844 0.77469778 5588778
-0.84469527 -1.6344844 0.77469784 5588781
-0.56143814 -1.6307492 0.77669054 1776411
-0.55709797 -1.6361275 0.7762714 4077353
-0.54499662 -1.6344838 0.7746982 5588520
-0.53365672 -1.6344838 0.7746982 5588519
-0.52393675 -1.6344837 0.77469826 5588777
-0.51421678 -1.6344837 0.77469826 5654313
-0.50449681 -1.6344837 0.77469826 5720105
-0.49477687 -1.6344837 0.77469826 5785641
-0.48505697 -1.6344837 0.77469826 5785639
-0.47533703 -1.6344835 0.77469826 5720103
-0.46561706 -1.6344835 0.77469832 5654570
-0.45589709 -1.6344835 0.77469832 5720362
-0.44617715 -1.6344835 0.77469832 5720362
-0.43645725 -1.6344833 0.77469832 5654829
-0.42511725 -1.6344833 0.77469838 5589295
-0.41377735 -1.6344833 0.77469844 5720364
-0.40405738 -1.6344833 0.77469844 5589036
-0.39433751 -1.6344833 0.77469844 5522982
-0.38461748 -1.6344832 0.77469844 5588518
-0.37489757 -1.6344832 0.77469844 5720104
-0.36517763 -1.6344832 0.77469844 5720105
-0.35545766 -1.6344832 0.77469844 5654054
-0.3457377 -1.634483 0.7746985 5588518
-0.33601776 -1.6344832 0.7746985 5588517
-0.32629785 -1.6344832 0.77469844 5588518
-0.31495792 -1.6344831 0.7746985 5654311
-0.30361795 -1.634483 0.7746985 5654054
-0.29389799 -1.634483 0.77469856 5654310
-0.28417808 -1.634483 0.77469856 5654312
-0.2776981 -1.634483 0.77469856 5654311
-0.13351898 -1.6344826 0.77469885 5720105
-0.12541904 -1.6344825 0.77469891 5720364
-0.11569908 -1.6344825 0.77469891 5720621
-0.10597914 -1.6344824 0.77469891 5720365
-0.096259207 -1.6344824 0.77469891 5720107
-0.084919281 -1.6344824 0.77469891 5654569
-0.07681933 -1.6344823 0.77469897 5654312
0.10785939 -1.6344818 0.77469921 5720364
0.11433934 -1.6344818 0.77469921 5720363
0.12405927 -1.6344818 0.77469927 5720364
0.13377918 -1.6344818 0.77469927 5720365
0.14511912 -1.6344817 0.77469927 5654570
0.15645903 -1.6344815 0.77469939 5720105
0.16617896 -1.6344815 0.77469939 5785641
0.17589886 -1.6344815 0.77469939 5720105
0.18561882 -1.6344814 0.77469939 5720106
0.19533873 -1.6344814 0.77469939 5720361
0.20343867 -1.6344814 0.77469939 5720362
0.24555835 -1.6344813 0.77469945 5654571
0.25365829 -1.6344811 0.77469945 5720364
0.2649982 -1.6344812 0.77469951 5720622
0.2763381 -1.6344811 0.77469951 5654828
0.28605804 -1.6344811 0.77469951 5589293
0.29577795 -1.6344811 0.77469951 5589294
0.30549788 -1.6344811 0.77469951 5523502
